ply
format ascii 1.0
element vertex 719
property float x
property float y
property float z
property uchar red
property uchar green
property uchar blue
end_header
35688.94076668025 -254.9320760631088 -83559.66557587242 141 122 105
3075.9081666729435 -438.58354907374644 -8604.746441066192 193 177 152
21780.296070659573 2384.1454377292916 -58323.66138885925 150 141 124
8831.93273232653 -1035.8200332524452 -17552.262780646954 188 190 63
-6851.155313765142 -752.1922106232832 19037.594610665597 47 39 20
-2414.466718828826 -338.8415261979309 7731.490576317226 183 165 53
-3106.503740435448 -384.89405654482186 12792.189396077407 182 155 48
62049.95562796314 -6841.799890395384 -145910.2716511335 107 60 14
-2731.3410663889786 216.35508446894315 11457.478085887311 255 221 192
8713.21103541345 -617.8729803260463 -17293.623247717056 63 48 5
2626.998688211489 -416.726254580605 -7879.061152339384 143 126 83
1048.3930671584124 -7.269026847423885 -3233.3234974592706 255 237 139
-13236.217206963958 1235.5649690239081 49121.441225519586 93 84 27
4270.175122873129 -668.8813356559098 -10473.959590960287 118 85 76
3701.378109359967 -659.0514414788183 -8971.87343315684 135 125 115
3161.2644833908735 -494.94674741493856 -8340.327332237039 161 146 105
1553.0616139130618 327.94892905989127 -4285.613926612325 38 31 21
485.20274928840354 -42.633663464598726 -1652.769979755302 160 133 44
2940.232909246682 -483.15182039280074 -8026.002849074441 62 46 30
7377.781900357256 -647.3414989850478 -15196.0683330075 96 85 0
5278.802610153782 -755.6884458764232 -12293.15275745282 119 100 70
10364.910747433702 -1631.8897212149125 -24352.042269914316 113 95 81
5059.159595942631 -237.51032166530945 -16639.1352827038 169 149 54
-2093.5659269295684 -241.81144196090162 7783.381679748756 144 96 0
5906.917355931513 112.36644340678072 -19556.616223861736 127 93 0
24495.449984946554 894.6647192748102 -61566.78688691476 234 220 171
-1446.9010948791665 -172.08791364971145 4906.62538092255 211 188 74
24440.94522659105 2837.871028877688 -65646.25512237033 61 52 35
5616.114968182482 -916.0012418652631 -19490.32074765822 94 69 12
49414.77048475048 1732.2008393143503 -89170.56001442336 169 159 147
-1242.3939727892287 -166.7923980150012 4287.175638694874 104 78 29
7802.407218760936 -628.4625818547715 -15942.295651639939 106 82 12
3743.4061726474265 -173.31350895497582 -11916.565719569 72 60 36
4701.376847886129 -771.1615610833865 -11273.828925259866 161 147 134
7033.505664269419 -479.0868124761956 -14016.215879237961 86 59 0
-12507.453723071043 1261.4242367794054 48827.21693377386 250 214 42
3916.2936242742962 -713.8776322245192 -9609.737879656961 92 82 73
-11783.212835912569 1030.2971179704198 47405.55224663043 120 73 0
-1733.8271296964683 -237.03788845081775 5946.248969069639 168 152 39
8510.583537018278 884.6540470746082 -16418.75162636051 129 121 100
-1316.999390687913 -165.3089802197398 4535.067884579097 90 80 0
-1973.3043233949095 -221.93514968681578 6706.9374361823975 82 58 10
12068.092696586944 132.68058019211972 -26819.95320923703 94 47 0
10555.39326497204 -25.125878621914197 -21048.16422344129 70 45 0
2392.0904929738654 -174.92945619376724 -6415.093516695565 99 41 21
-1346.9592675184676 -182.48906222720822 4430.35696711556 178 163 48
4663.839598727491 241.07702810411809 -11386.262520019372 161 150 122
3753.9022930570745 -785.7452080601805 -9963.967362518639 148 106 6
2246.59289706506 -295.71093468915353 -6424.795173247682 141 113 74
-21139.84998195542 1716.2864084808775 85017.0336256878 217 173 50
2051.9501322741626 -314.07188397995253 -6004.898858608254 154 148 52
7269.465562707064 -712.8629099737542 -14159.177411580375 186 177 138
4006.238149562928 -620.4214046799335 -10189.59588768619 156 132 104
2278.2440204790983 -355.2042454405817 -6329.809715235011 79 60 28
1618.184876116834 -148.22047640503186 -4802.702612302326 149 126 30
30556.419183679787 4486.586642797017 -85486.71129871643 71 64 48
-1123.3451092845057 -149.85843834740507 3620.793617167625 86 64 0
-1316.999390687913 -165.3089802197398 4535.067884579097 90 80 0
1600.796618541165 -123.75401606411647 -4901.878250698874 168 142 23
1618.184876116834 -148.22047640503186 -4802.702612302326 149 126 30
-2305.656824114381 -272.08562255821073 9677.265566181255 51 39 17
-2214.5269079248806 -335.57975112926295 8787.675345104415 109 100 85
-4451.1279949775935 429.22967925869614 16284.377727131632 76 63 29
-1747.761476809112 -214.68172271305053 6540.384334788177 143 97 0
30.737605825152464 -1.9611801641940583 -96.07521117451786 174 155 53
34919.35037232333 3865.600097641605 -84449.08462405337 124 110 45
32947.06494101283 -3848.7392728999243 -97427.66341627791 86 61 0
49519.58371363547 17400.711257812727 -101411.09641760483 34 30 29
25941.027351459237 -5333.026227315091 -96223.24744892542 154 147 131
33242.04402617429 -1302.0199527883576 -96815.58061026645 103 76 0
33198.94082826277 4205.594194418793 -95129.98952637315 46 38 15
22721.831328474043 2762.2441426941264 -97982.00210611476 62 50 8
33643.180804736 5665.250409654432 -101629.65149054925 149 131 31
34223.217011841065 -6116.766900189893 -89729.84600862699 127 113 104
31366.400381806627 4082.0463742181178 -101427.2526849926 222 165 49
29578.584585825163 -522.0739925531446 -99505.52655374826 254 227 197
21637.417744574137 -3249.0634049730397 -71799.85421439874 138 109 7
31505.493656294664 4805.185806032262 -96819.22646150847 168 158 35
35569.381144533196 -5318.091658584106 -90671.8373265772 119 60 20
34881.54974774611 7136.686267610935 -93034.40300461394 100 96 87
33775.39097209776 3884.677133496089 -95219.43214616438 56 45 23
24330.839568613108 4242.288645959044 -80373.38156443163 42 33 18
30613.7561794912 5437.993488732596 -98947.57921691852 41 35 23
32732.673239214953 3048.1207118473176 -83328.44358756408 127 109 33
36877.57653501527 -4842.577126231124 -97065.10769821369 101 69 30
34140.12596345648 -164.84141146692824 -95828.8282910629 255 245 102
31510.973321906582 -1953.484788251457 -98981.16105988568 106 93 76
27179.25342249863 -4792.260418658439 -96478.15955917146 69 54 13
26560.650719315552 -2875.115023824154 -103114.21581554998 111 84 41
19893.548682866833 2707.6973885929774 -88305.54901023899 77 71 57
35431.71448623542 3918.8451227850373 -93719.25458582856 38 29 12
34932.1352457927 4489.26599012315 -93996.38009745105 65 56 39
32614.919784558166 5366.3451465037915 -101320.33308244793 157 139 37
33098.21231217341 5593.878530047912 -101971.405965095 47 35 0
36802.474545599456 6796.569087044125 -101133.71428683473 50 49 31
45493.966438004725 754.1266804828423 -101670.4930871529 88 49 0
27837.971742352747 -2338.8201494740006 -101392.93827029435 149 126 58
27471.476997446694 -2154.658968586574 -101888.71175591553 101 80 33
33710.49245355599 3602.724209200008 -95384.01035946902 40 29 7
29440.306185143163 3648.6772079415427 -97334.22047350249 105 80 0
22748.82101043972 2723.3437336000616 -84227.9071588423 117 98 30
36127.85817173738 6787.065725472803 -94929.11517498628 108 102 88
35954.54625414291 2124.637349948741 -94599.30192455642 48 37 0
33915.19370210301 5672.327797138216 -101702.64418681651 170 153 37
27922.909749101505 4386.763781582381 -101189.25776838003 180 151 47
37030.67195490458 4858.628303910088 -92610.39401628633 37 26 6
21396.371303724467 -3243.7528633602888 -71753.20992102794 126 93 16
21476.417780306994 -3262.9107763457455 -71895.23429684137 147 125 102
19034.7366704418 -3745.065164470601 -70493.16889617783 119 84 62
33548.0120162617 -1379.9442219822517 -96873.11844640541 95 59 0
39829.87997681571 -29.818082618386704 -89930.09954967725 89 65 0
31118.745260516032 -3805.861136972557 -99463.38154424909 136 122 109
27813.858233906885 -2524.7236421819334 -101580.04076856996 133 118 63
31633.807311337376 -1985.3155238917445 -98808.85970659615 56 43 26
31685.6125808384 4736.232296089764 -96753.56717147604 73 63 10
31794.667491559212 4892.444831039031 -96414.27244695785 84 65 33
37819.64850322404 -4934.465739065961 -97006.15658242376 144 116 92
26309.40577956589 3209.5448574634643 -100365.24029039258 140 92 0
47218.27490860138 17097.781325485957 -100309.4886757872 140 129 123
25501.70094602603 3119.8115977003426 -98142.033415625 181 161 62
-508535.0189972005 -216205.1183263391 199666.9512190975 65 43 0
-290272.1100433221 -145405.91801726795 140073.01002990303 203 174 20
-660987.4361228319 -277497.67582054174 190656.69967550112 170 118 105
41079.826647643335 7076.946850560672 -86088.76524726921 53 46 30
27236.202853775234 4271.6965193604965 -97843.25892579756 53 44 29
36128.48265729022 2314.8852078974355 -94697.8226238331 58 47 1
32696.08946800521 6053.684451852653 -101704.30811972564 108 100 87
33775.4423574711 969.1997837382088 -95451.53706598283 60 45 0
39860.10048429865 1642.861064604308 -90986.34028695211 67 52 9
25661.589545303716 3758.22366474149 -94697.28532156524 45 35 0
35865.01388790059 1524.7929063514546 -95964.56705492888 146 126 39
31438.410224235933 4798.4123921098 -96655.75750056207 152 147 56
40133.60787990707 1299.3389761237909 -90309.3099493515 68 59 0
39233.43407727352 -212.23006285981242 -91124.87164498561 203 182 29
28772.92825173116 3147.29662412996 -99432.25678811019 88 66 0
29226.358033129196 -4644.649964686119 -101946.21089360255 209 173 53
47850.46367528494 4970.125972489675 -105878.02115773207 245 217 48
25777.503361094023 3072.1759527056497 -101886.35703902283 128 91 0
21176.193926732743 1022.0355926829195 -91607.16094391783 52 43 26
41919.35539538545 -5323.388319936043 -97746.84495854314 227 197 23
27254.716091912636 3365.0086199827288 -100818.11320835854 124 73 0
32758.819496802655 -5539.267869684332 -99312.12633475542 211 188 22
36745.972419558646 5437.174215311155 -92015.98494374838 37 32 0
27847.118367447958 4174.979897307732 -98991.88850430462 53 29 0
34053.03393341024 -267.76902968650387 -95778.27594322884 255 243 83
27638.71954174965 3812.7774497886976 -100434.73798527899 188 169 15
34049.948791893905 972.5600407698237 -95531.83610143991 60 49 3
29256.509746217453 4324.489183244303 -101651.48543941801 191 167 45
27537.119526041126 -2089.0102158881255 -101841.11642378368 161 156 74
25475.57579095971 3471.675633642406 -102282.25986863648 49 44 0
42934.33522276047 -3698.417936671753 -85932.1762784273 62 46 0
39607.728650424 -334.76757641370233 -90518.45647940073 211 197 28
30844.82205319947 4519.40565119545 -97446.14252753284 118 94 0
27146.155204301158 -3928.829758025757 -102971.31779405907 183 162 55
33776.153508289506 4557.608479910233 -94704.60688764568 101 92 75
31531.292931630476 -2078.2437016119343 -98791.3347768191 73 60 43
26718.48158458546 -2877.308664741972 -103144.06763628579 135 98 27
31408.8573163273 -2196.0380573157763 -99065.46625068432 106 94 78
34216.203082198765 6807.765464102205 -93541.54718958339 94 90 79
31759.29078697852 -2462.2594655470493 -98802.8400208315 67 54 2
27446.92151799408 3318.784775008774 -102559.70972746548 133 83 0
4253929.300292912 1642640.4587642287 -1393882.7991840644 204 186 26
-1381292.0294052216 -605129.0115578 445153.6098606402 254 226 212
864090.9381008445 333976.84199311945 -382941.4807982944 94 90 78
44387.642814515675 -6645.396741968921 -90115.01317615218 63 55 42
31052.96430803674 -5140.862417755585 -99780.15026110971 76 48 8
32524.949835812662 6109.105499772133 -100340.89398635922 120 111 96
25671.46146303327 4266.341485327928 -99822.34403312267 128 116 100
45727.91507984314 -6823.425764865726 -88636.1172970464 59 50 35
39015.596999930836 1719.8803307037747 -90826.31618957773 150 145 61
37054.56580069409 -2528.553255427457 -93573.02009963752 235 202 11
38964.36009946874 1516.6568958035455 -90643.30319902199 68 50 0
39109.5721874503 1332.4998917702271 -90107.58030311285 190 177 37
28861.661015047193 4328.627574382178 -99151.09467068696 162 148 51
32983.4643558933 -613.8424219146374 -95394.20956264492 255 229 74
32774.20216643681 5533.047284386891 -97655.83038605646 144 143 50
26949.066058013806 3766.794025295655 -100191.77530440853 175 151 53
40616.51156020211 924.4467211121424 -92014.04667344378 104 79 0
40035.80500183052 -305.87382066183426 -90664.52862229044 208 187 44
30536.763155780085 4765.668876232204 -97297.30514323019 157 147 15
31441.01801230548 4563.238675278269 -96654.11424849705 75 69 11
31241.83172388997 -2295.0295778293967 -99002.38316166127 115 102 86
27418.12719211781 -2146.818137590884 -100574.74743262013 125 84 22
34085.22636152989 6674.11134026445 -93806.60044433596 94 90 78
31494.41402372148 -2500.7297608715016 -98937.087461462 137 124 108
25761.748647829678 3612.4277020847226 -102104.39434293806 67 45 21
26024.234653244126 3161.0355401339066 -101955.97780690428 126 85 0
26024.234653244126 3161.0355401339066 -101955.97780690428 126 85 0
30411.41749207341 -4862.850416368716 -100523.96804149108 167 141 106
28746.339283270874 3214.063991572835 -99623.86574676586 109 84 44
29326.68409021308 -5043.030165617602 -103660.21526333185 139 108 2
28781.838372248418 2994.4706727085263 -99703.46421297749 196 174 11
26077.951418184544 3063.2311161222883 -101985.40894979629 211 170 44
33983.96009613227 6714.678099827536 -93918.99075210921 215 209 193
33654.15514797976 5269.860121652498 -92057.04668505739 100 93 77
36143.588510739326 6971.059587794848 -94792.62924302586 67 64 49
34059.24687662141 4082.219843258648 -95005.55661881315 108 100 81
27439.22429739809 3452.4977045351247 -102162.15175519552 135 95 0
32069.919414015185 4264.264169203091 -98138.4844107813 66 59 5
31481.43037354426 -2760.074272080835 -99140.53941755138 124 108 93
36286.38694562415 5736.043433307095 -91617.20173532456 42 30 0
30890.734307104907 5025.716820798981 -102071.43149223732 56 39 0
27245.275548796642 4223.768250488683 -95834.12218237313 44 36 0
25437.78512564065 3554.3715773867 -98630.39076659491 71 51 0
25387.36700399795 3777.300598891948 -97915.74061152102 51 43 30
27854.124026401107 4026.897848019814 -101515.70729855103 177 154 38
26787.583439775397 -3125.1509054769585 -103225.41893157437 111 86 66
33657.08643072736 4106.769752735203 -94881.21366330385 110 102 83
25005.17564727526 2998.7131048395536 -102780.34492286236 180 150 18
39666.57175195393 2072.900349088748 -93102.2753594307 216 189 38
32231.96241799776 5594.846282534696 -96391.29071254253 149 130 51
37261.19940878392 -2364.634011939554 -93685.25230174976 234 199 11
35504.29627981751 7802.464771799294 -92595.22712872075 95 92 85
30807.314122640426 527.3458319375538 -99368.11606191543 200 168 8
33301.18524964003 4434.701247695007 -95201.5904623537 42 34 13
30991.140896335073 -3781.765712451855 -99584.1681032945 94 82 68
21520.15297816921 -3292.440186940199 -71733.41635938468 131 108 12
21137.687166534415 4069.7838568357283 -83173.36596419985 146 137 122
43214.85224065739 -3369.391898411037 -87391.17858073568 96 63 0
37090.82813899551 -4984.566105924926 -97310.89600979588 100 78 21
35518.65221666077 -4832.9681612613485 -96268.90433945021 65 47 25
28530.081879491365 2909.374665809847 -99839.68649345094 95 68 0
24695.712915243774 2998.7136702379416 -103125.43087701159 75 49 32
22639.045459294066 -2471.4160788099043 -72764.83111058 104 97 79
39681.4691159899 146.3135659432976 -90470.65076099848 99 88 58
30395.165897033297 3873.0854143377546 -97899.56263047189 82 53 0
34015.830274198954 6172.66995786799 -94114.20417581795 108 102 88
32052.23843130532 5696.364094620352 -95797.28575199778 49 33 0
29157.695171499465 3904.315001379216 -97599.78508410782 180 165 48
31561.50822458467 -2245.782918698689 -98742.56290068399 119 106 90
29663.0232374469 -5289.974034991629 -102736.0117849926 255 225 140
28128.118442744675 -2438.2396191597873 -87237.2232919135 144 136 117
28701.00859804111 3029.418984842301 -99687.36360623987 198 168 12
32128.447870441636 5147.103020772485 -97727.80387039499 182 155 40
27145.9321413021 -5551.772693817616 -103632.2356819442 124 111 7
38638.9045020195 -2881.263338482776 -93632.02503749626 172 108 96
31711.817288932587 -1321.8859818551941 -102791.35772607494 71 59 21
25904.7245078736 -738.7663631085185 -103415.76750558868 114 83 0
29262.74527895209 -4872.527016846204 -102796.32915094051 82 47 25
35148.47519327743 5671.394796997059 -99231.21595750593 105 96 81
30540.72756402798 4190.004824938245 -97684.03895148949 97 63 2
25880.649046752886 2976.427310464174 -102148.31072987395 150 109 0
-1308420.906620973 -657548.7610464966 580942.8134361887 147 139 128
546911.2764692314 186095.59392342705 -244225.8112963347 214 151 71
-267881.2122795505 -118621.33040742992 93732.619150785 130 117 21
-1119264.3456949217 -477396.0656115874 298346.7993216747 116 111 56
41927.33584755933 -7270.01663276606 -90873.80839425584 153 144 127
39618.62176077946 -7166.604626908192 -92116.2877120978 141 131 121
50039.446197845726 -11121.328164167822 -77829.2223320125 30 28 29
30672.511160731177 -3157.925000050049 -99236.43853269781 111 99 85
31899.96385357748 -1517.3082406562403 -97863.16276878219 201 171 47
32692.34534511305 -6173.2170539031185 -97834.96389124909 89 66 0
28393.01642402158 4814.199635947717 -101355.89416942104 122 113 96
49868.90116265888 -1201.5658034849532 -78689.07953101501 111 106 100
30750.4257609018 5553.445368709721 -99782.6595573417 126 117 100
31114.123881282525 3301.132251808938 -97375.96134801029 174 146 10
37282.14626365255 6557.216972790179 -90558.22446660727 117 98 30
37481.28159154959 -5864.679106075916 -93121.93482877812 103 54 49
30979.116729871523 5793.427312320477 -95867.07796596742 110 101 86
26588.754045978796 4040.18825091195 -94375.3337611674 49 33 0
30024.197079782327 4672.070294469538 -101060.04205633687 81 59 1
42907.778869201255 -207.95611587001724 -86555.16458308787 214 191 35
31963.639847189395 5786.195660250007 -100470.68997159578 110 102 89
31066.376365965967 5075.849127459208 -99433.42765991403 51 30 0
28156.28391353706 4075.155882421501 -100284.53718012967 175 159 63
34057.75786954227 6412.30668457798 -93773.03161884697 50 44 28
26369.037868010524 3756.8166431519635 -99085.2926345802 67 46 0
27492.50683076788 3772.2730980480833 -100391.94020097781 181 154 23
31031.65036840122 4940.113560642677 -102097.2248300752 63 46 0
29423.966183551052 4990.203249838121 -99734.37038639536 49 40 25
37602.4532641449 -6588.84792880796 -93049.6743344878 181 163 153
30847.931258834116 5016.224668617296 -96261.10804351045 167 152 51
25968.565850921434 3944.560272873672 -101923.95483697875 57 48 33
37602.4532641449 -6588.84792880796 -93049.6743344878 181 163 153
29004.022335216665 4854.171754328037 -95874.2130885473 54 41 0
28588.511784619775 4388.298817208324 -95737.16695976636 162 148 43
36153.74297053597 -7308.826292111226 -92282.85718549503 108 91 81
42878.418748526725 -6305.102505099006 -87973.95273660155 129 106 56
32708.458280135394 -3856.1212340023167 -97370.85558738599 73 55 0
32456.969983645125 5289.205952082653 -104668.67529132908 71 54 8
30729.982513547675 4716.724569207269 -102069.56147768431 171 155 44
36569.82524238349 -3203.663961985778 -93531.27533696577 204 96 93
37548.940573971595 -6669.93893120791 -93212.9999217999 182 164 154
33007.775533361775 -4242.88735559218 -97219.84195427885 142 124 84
21834.76097031586 4257.1988553536075 -84862.65557173759 108 100 89
35344.27640309865 5806.66352178713 -92729.35357358304 64 57 41
40060.53366141917 41.70681458847438 -89501.69719844987 89 64 0
39011.42650798911 -3822.3660495686654 -91045.29974317322 141 115 40
48931.40651510178 -843.0677397021212 -79845.06355974567 124 117 107
33043.22215645497 -3778.938670497403 -97022.4232783449 81 65 13
27688.642701552813 3458.020649543195 -100493.73110445263 158 93 9
29654.680592059227 4516.308615102855 -99868.10990738931 178 161 57
26748.561148457342 -2688.6903958015946 -102926.43909809773 173 157 82
34801.53959492264 6869.93867990014 -92934.66131387513 45 39 27
43469.27080975407 -3402.785509105965 -86333.98324023267 162 143 113
28761.226660945653 -1773.4723543563318 -100610.28694099905 126 89 0
43809.12332319071 -3733.2645623346652 -86201.82058728629 209 193 54
20765.01547757569 -3483.7584391035066 -71337.2382127215 64 57 39
36831.761188029486 2272.067525564251 -92039.06484658232 71 35 0
20853.31711577494 -3417.0900653822896 -71455.69232481775 61 54 36
25816.349538637027 3567.133245798913 -102373.72338391202 46 36 0
39556.09109560478 -5564.759136037945 -90970.78819565699 113 88 34
28919.92051007126 -4988.173640244769 -101287.86415588367 180 153 106
30452.798130709674 4399.894046905 -97639.55601346982 96 69 0
39362.8427310272 -6075.083322071061 -91310.10018800988 185 170 129
28644.828969385104 -1741.354302938337 -102142.94227495645 215 173 55
27825.09538315449 -4678.640642256766 -102426.76942788206 227 171 36
29553.771733267393 3896.405466083981 -98650.63606786661 195 175 62
30165.43110000909 -1206.167405928448 -99326.7515748857 222 203 124
26573.688759193014 -2402.0588895279757 -102983.97826765335 222 189 32
39266.080220130905 -4673.670688823472 -91060.55832692077 213 215 52
44117.20987011515 -4448.086407022843 -86021.12661728823 100 90 29
25310.520707449912 2870.0239442108473 -102835.96487594841 177 150 7
36914.69578394438 -3171.885005205092 -93201.64298492247 170 118 105
33992.938233736226 6506.938686267259 -93870.05743229514 215 212 197
28021.008533612356 -2348.119138805443 -101429.37633061255 155 125 53
33178.70203053227 -1625.4761645403103 -96713.21164318663 95 59 0
30881.60969711159 -2249.0274776023016 -98761.66241881358 106 93 76
32213.135260617826 5586.555646500033 -95834.18375889807 44 33 5
30625.179982254616 4293.94084451957 -97720.00796499097 166 139 68
34427.742784673246 6561.027601242206 -93346.44874926144 132 124 113
32870.15252990277 -3492.6036335138583 -97227.70405151506 89 63 4
25441.642790176586 2942.962357913425 -100848.25920769361 139 111 0
25358.78049678098 2858.320365256246 -98397.05847006151 194 175 72
31574.804888936684 4683.026145492972 -96276.09732406939 68 50 28
35959.50882164724 -7890.991576532298 -95227.23010573979 235 201 50
30280.830732181235 -1532.1528142062077 -99306.35374621088 147 131 98
33041.06942278599 -5714.461746528398 -97368.30034918392 167 146 63
33885.093302496985 6644.691555712022 -93744.34354285142 50 44 28
31489.678506139673 -2547.650208751698 -98718.74807022786 64 51 35
30362.628123964318 -3753.4656855739736 -99738.6440927999 64 52 36
39306.17692956438 -521.8368605929514 -90395.92924180358 111 86 2
27915.72595975133 4557.005844669947 -99932.48853974699 131 122 105
28943.94620208887 4101.995037158724 -99183.53171259168 174 151 11
27716.59381290673 4373.522005103159 -100175.53599146701 46 34 18
28047.724765140865 4494.402787669464 -99821.53037060254 50 41 24
40932.02775985077 -7366.808548251437 -90598.74667901263 153 144 127
28285.54210735642 3667.971235564476 -100013.78355663425 196 162 11
32085.521138589087 5023.239995680261 -95987.41307290751 159 134 5
43107.317550707885 -561.5929432607268 -86576.2769093656 60 61 3
49661.95840660379 -850.2902336350455 -80018.92785232377 128 120 109
32657.554415490416 -1591.1216559822908 -97578.4797253027 210 179 26
39663.94823553105 8142.517526867863 -87751.85510758516 59 51 32
40365.09488996306 9723.568637191082 -86852.60756180932 65 58 48
39527.34188045003 -3685.5147111087063 -90950.14494543085 119 94 0
27662.316390358883 4492.481756258804 -100195.32214577441 123 111 95
28045.766774956955 4604.0363732758615 -99792.7894682144 128 119 102
34503.60703343301 4951.316557926996 -93656.76011868559 62 55 39
25426.459991821896 3609.5843720818903 -102659.87430458663 56 50 38
30222.79649176757 4669.0711671237705 -101021.39711264032 55 37 0
35213.52322230459 4403.338606530206 -93153.01882313342 89 82 66
34124.0387629195 -6819.265596828007 -96945.92682961478 221 197 11
49601.02456664512 -8185.513521447492 -83232.48037823914 198 190 188
39771.710288512426 -7207.87746915567 -91683.92876383016 150 140 130
34304.657202548435 5428.224959343585 -93782.95859806977 132 122 110
29394.121056962005 5104.046840581642 -99353.18695904569 125 116 101
34020.7758306266 6387.153021284366 -93725.97806526299 64 58 42
48866.04510531451 -7924.964544315095 -84387.15402116018 61 51 49
34304.657202548435 5428.224959343585 -93782.95859806977 132 122 110
37894.793645625316 -6787.557321530045 -93332.43304751982 106 88 76
37999.425259254895 -6517.160054551344 -93169.83383428668 197 180 172
37999.425259254895 -6517.160054551344 -93169.83383428668 197 180 172
46588.976866088786 882.8291269637293 -82641.5180407041 129 121 108
31211.232466572153 -3197.0210159581625 -99458.0137034025 45 36 21
30793.08940372498 4898.7201784472045 -99715.70871115623 63 46 2
27142.545194930924 3803.948132929772 -100978.75867423862 60 48 8
37019.296768543754 1613.669073933937 -92039.94752654944 238 237 243
36571.59407063953 914.0283247824468 -89751.4378699399 198 171 58
40726.10335501801 7713.610828387294 -86838.08008961887 119 112 96
27905.961388668395 4108.210801943952 -97743.06981822538 71 55 0
36052.61737004101 8090.647936638497 -89193.4330034243 107 99 86
34477.233576235616 -5943.95323774583 -96155.1532503963 102 80 20
31303.11176857842 -1496.7061285114708 -98436.80421221796 202 177 51
35085.179055533896 7627.570310411529 -92312.2225747737 26 23 14
36052.61737004101 8090.647936638497 -89193.4330034243 107 99 86
38672.78411583218 8708.6897010556 -88731.08591535717 127 118 101
35746.004174863796 2624.745791995906 -94018.86306091031 55 46 17
37009.34186731887 -6563.2481925206575 -94210.50974809706 82 69 60
35591.40897868503 1875.7851231908376 -94760.04774238156 147 126 47
32795.436706787325 5973.2619007018 -100721.09879437127 137 128 113
28122.570501495582 4148.375937258887 -99064.2801963104 61 41 0
34914.911893504985 3895.939563725298 -93539.68387373454 150 143 127
32577.176535161085 -3479.116018087998 -97561.38497420095 160 131 11
34886.119075439456 6178.087292536181 -92977.50414175645 44 38 24
30201.708433114753 4003.3558649764605 -98046.38921718212 165 148 42
35280.47256236202 -7274.529061518908 -95839.41332087864 93 66 0
42999.23102509006 -74.80614828582063 -86399.66115283528 208 185 17
30713.606179012288 4951.951387143175 -96210.7840089637 153 145 60
32636.24213152757 5340.124216640442 -100253.97413159013 166 153 57
37881.64491394914 -6619.526561247568 -93308.8863272185 204 186 174
31378.51910597601 -1690.1479346472279 -98455.67239023023 83 53 45
33463.200055486894 14428.56423393322 -95531.20445880998 129 118 112
34650.89042258773 3891.2283371418193 -93855.20620486354 41 33 14
33877.7272256291 6631.357985379729 -93844.30894958817 143 140 125
37872.40652471117 -6473.402196647533 -93275.06738190634 121 104 96
38141.96728961019 -6562.98359718567 -93052.50971328282 86 69 61
33695.46231908016 -6608.696835987304 -97381.4743433025 227 189 28
26605.525621868397 3402.4909588610685 -101693.64958298957 181 156 29
25014.579331668978 -4083.613313963601 -104914.77773116733 255 237 176
34193.19972960363 3333.513931034051 -94396.60007003925 86 77 60
36009.73195374607 7848.316049230813 -93262.4920328204 26 23 16
43521.476981546286 59.434592295073735 -86886.52657017623 208 183 28
37604.75636103768 -6785.129012045573 -93350.56101706585 200 182 170
37456.34705470243 -7085.782069123981 -94127.49434680556 185 171 158
38103.991565426666 2083.1868773288525 -91174.01892172884 193 174 54
34914.911893504985 3895.939563725298 -93539.68387373454 150 143 127
38061.62798546241 445.31326445466493 -91522.95310263665 209 186 46
31508.530880385435 -1707.3321853567845 -98246.91556526457 80 50 24
49473.05205700431 -615.8901651344796 -80193.79208288694 138 131 121
28719.01968550458 4123.29170882565 -97739.85800576724 184 169 24
30884.767633740208 -1209.9526008569778 -98848.32308842722 252 239 223
34068.557363614535 -6161.903314037385 -96928.5574835881 192 162 50
34079.1153993019 -5553.382638045357 -96584.68452351907 73 58 37
29667.485480333537 3518.7542207903525 -98669.79053845153 101 73 0
29491.639941831178 3732.923542544931 -98797.8900416264 181 178 15
29469.348834459648 4161.359629790197 -98606.85967665713 187 161 14
43997.12871224575 -5843.280091797947 -88134.05675271276 112 103 72
33829.80050460048 6700.0298849050405 -93863.02517196548 192 188 177
32577.176535161085 -3479.116018087998 -97561.38497420095 160 131 11
28836.432964098753 3376.5792377138887 -99518.0529994269 191 175 38
34914.911893504985 3895.939563725298 -93539.68387373454 150 143 127
28490.075174487887 3294.240550944141 -99848.18921333914 188 169 30
40592.88557771812 11287.368774442102 -86005.45921647189 159 151 130
36569.78258490522 8212.800200463505 -90002.20787594096 103 95 82
32114.851232716155 -2746.8397661520003 -97787.40708560933 176 143 38
36196.63850431962 -5777.526906154557 -94597.95437234087 108 76 29
26146.859874286147 3379.1389510716217 -102030.4548609332 177 154 48
29204.728535044174 3822.6785940532477 -99050.98703339703 96 72 26
43667.02293249957 5093.482888367424 -84556.72836962408 135 127 106
43494.94364372339 -592.549776823854 -86081.48526138904 202 189 33
35610.90757379675 5791.193088979242 -92396.84307896216 95 88 72
31223.083777765554 -454.9280631005371 -98934.28039316054 255 241 162
34020.7758306266 6387.153021284366 -93725.97806526299 64 58 42
38822.15882080323 -4128.633638879791 -91755.73832979049 130 78 38
25614.326347605744 -2137.2515551022298 -103976.56311576738 222 184 47
28901.530772097834 -1837.1797702948659 -100627.65302342827 99 58 2
31832.39868668943 -3398.2631472010903 -98103.89843891922 152 129 49
35777.32579595483 -5980.458150515728 -95185.64792674169 82 53 45
30296.70694635305 3692.6115157816184 -98029.80843719807 186 173 42
28938.79834447565 -1644.6330692724932 -100807.09187251216 204 176 30
31832.39868668943 -3398.2631472010903 -98103.89843891922 152 129 49
32029.48985690788 -5080.387778332722 -98482.62450788397 166 149 79
42977.934076280144 -3540.3747057640344 -87668.9880614091 216 190 17
28844.532504905717 -5077.721543519426 -101595.4692257436 86 55 52
33720.50011218553 -5966.847438394291 -97135.84147743943 95 71 9
33598.578971626055 -6405.657261197741 -97359.68724261709 83 64 0
39227.22914348941 -4550.740686325611 -91547.22150018661 152 79 70
28677.30845955184 -4754.089332799723 -101736.85125424371 192 151 59
29666.59838879478 3520.1585433744235 -98668.44738078445 101 73 0
43936.465644231976 4408.947631605379 -84354.20751478567 112 105 87
36937.73887652029 -7523.188952425311 -94148.65321540748 105 92 83
33012.16963365156 -63.5941021412545 -96389.40744002377 254 223 71
39003.44358862768 -318.19992721227425 -90576.34615237702 138 128 101
30938.33114102533 -2524.5153057435255 -98511.89281198833 41 28 11
35596.199181302596 -5861.697932909772 -96190.16681390103 198 181 127
39189.88655329068 -514.8909141513366 -90504.13447079329 109 82 0
43268.50133802498 -86.65565539558979 -86288.93445663808 81 61 8
27788.623851969696 -2111.966709605067 -101888.85227664644 214 176 51
27263.474604543386 -5435.487164611121 -103284.19305992138 84 65 58
27021.81999875757 -5156.092035766821 -103402.3080257643 173 154 124
33873.3274673779 4117.043273987743 -94664.56149006421 143 135 116
36808.500286654846 1818.5265067878686 -92053.77857571417 85 75 63
33738.18235516997 7459.270354957332 -93116.59611251493 33 26 16
30067.23202056549 3857.1477909431915 -98225.53853460721 78 54 0
30588.766203719177 4054.8810557967863 -97678.48423256524 80 54 0
40114.4723265052 490.9312290402273 -89375.27953416332 128 122 100
34904.412962006165 6928.397087949774 -92979.96937636189 45 39 27
26845.10242258969 -3162.6122642402647 -103228.58900270895 112 91 72
30766.406774572417 -660.2234679675091 -99773.90180093568 235 199 87
31107.827880676465 -1298.5338439930804 -98494.91512424813 206 187 67
33287.03882129932 -6204.916986921159 -97605.37324862568 102 81 54
37360.749285997634 -6068.936282181477 -93661.1362107535 83 70 36
27747.92011338547 -2270.8279131045656 -101922.04385402404 125 79 2
29170.577234053304 3203.3327418180693 -99021.50821674576 83 65 0
34530.457058600376 -6159.408310122241 -96671.60971323933 167 164 61
30496.03563505608 4344.941255086021 -97804.46500398542 113 88 8
43733.54951647354 4889.634252237046 -84841.75314576754 39 31 12
31812.73619207703 4878.520836859743 -96256.77161220057 87 68 2
31492.920741334292 -424.093933811149 -97224.08801755581 242 214 71
30286.75669480286 4242.108572723861 -98040.34113366151 100 74 0
27493.91196510483 -2596.129095631283 -102323.81555449861 177 148 31
37187.82578624759 -3152.192845767543 -93147.48575384132 172 108 96
29250.590483401687 4087.9232847402363 -98997.2044267312 174 156 80
32229.210077123917 3997.689246500686 -98394.86140997596 178 158 23
29144.221821222654 -5042.492214747531 -101316.75422511571 180 153 106
25929.109203757296 2925.444344312133 -102356.18540054683 137 110 0
28490.075174487887 3294.240550944141 -99848.18921333914 188 169 30
29772.257569582103 3577.8236482927787 -98567.93753466793 180 150 88
36622.64349160105 6192.120222059738 -91063.2462023362 123 103 4
39802.42139690908 -5551.256395892517 -91037.97102263189 113 88 34
29943.79835920258 3403.2643626460535 -99885.5276315651 181 162 41
29812.01376977259 3783.341127344227 -98552.42818335957 187 165 63
24875.253227259534 2889.9077970733206 -103363.505118412 134 133 103
26507.2256620129 2917.8913168353893 -101868.57104407476 199 161 36
27618.303786164306 3169.4592105145707 -102238.95852836562 147 108 0
29827.70943589898 3867.4914701919174 -98406.64031975866 103 81 0
37412.870656802974 2244.6366932341716 -91709.4799082501 109 92 64
29687.560024353363 3747.3920630133084 -99398.9439190884 195 176 73
34940.16802448445 4669.444356113914 -93393.54092281175 101 91 79
30776.3359047874 3977.3116765482164 -101783.07837529201 124 73 0
35073.11075899069 -5980.384958701008 -95684.21465312064 67 52 33
-302.52655638631336 -21.502459582474682 546.1544626698603 111 99 85
-340.59583337117215 -112.71756467123149 665.0795052006715 118 117 113
2252.7431961106145 -273.28027665166 -5352.773050187561 203 177 92
-5030.214280457379 -691.8079006037138 16869.0514097424 164 162 41
-14216.26871572833 456.62492229866405 56767.33226057039 80 58 9
51.47243534471857 2.856157902020877 -229.845860638995 167 139 3
125.17091042319353 25.059780475962302 -370.7079395515315 189 167 30
-329.82259860818715 -23.267895071055428 609.249724530711 84 60 14
-40996.44656703272 1333.198431606853 162930.50524125583 103 92 12
-2567.5247085130154 -329.41923911732795 6927.32150601532 50 41 24
5342.779373550421 830.6476942664231 -18754.99912838927 124 112 96
3048.4310467023893 -525.5030746277267 -8646.879433439282 222 188 28
-6291.938299515751 -373.9297180837749 14911.198276644298 187 165 63
2546.2456931332163 -123.73968894923134 -7980.893991105084 100 87 70
-529.7700897560052 -69.93052230325506 2060.7130296577816 183 161 13
1728.479520965844 -233.28611396461517 -3765.765424776692 152 144 131
-3011.908107366399 -481.58632632160896 10634.355440136918 74 55 0
-437.80332765970127 -17.252032753033532 1160.687136600023 162 136 43
4859.957017690459 -357.3067211659825 -9834.651901724053 52 30 0
-318.92469696530685 -21.15896124749387 585.0591435902963 84 57 14
-14569.039643650876 -2004.5748397744917 32425.868444557003 93 71 0
5017.640440487039 581.6975351588594 -17801.526303962946 155 105 0
-14342.697547714726 -2652.0503664329717 38968.10030305651 56 48 35
1687.553050057389 -219.80459939876786 -3183.789654760435 169 161 159
6867.858827174485 996.7797864314185 -15080.671209676497 48 39 10
3122.356915079433 -544.468298506512 -8920.259216524084 223 186 36
3509.85362111358 -525.2962884861306 -8749.569551347266 112 96 81
3198.589063963901 -374.0194066153828 -6695.592988173125 123 107 45
230.99505706834057 25.436601948581377 -658.8352761235748 169 152 44
-37865.87637900535 -6606.969766315981 94392.28094457944 123 104 28
210.47195175674702 28.311073977885297 -737.5350638631095 96 81 0
-4171.920644816979 -264.9171865099195 10340.34393200121 71 61 0
-4782.6364262647085 -607.3023336220626 17752.75102898973 113 63 0
-26990.079520440053 -3490.323995026901 73563.30205229002 101 92 75
74.52840173955255 36.17856785261669 -24.01721801461211 82 65 37
70.49177845336102 34.47597824558562 -22.97869066115637 157 130 53
214.17596737210206 36.489373153212846 -531.9788107186691 191 150 70
-4327.633380753311 40.82452944856186 9976.039300583358 225 194 44
3799.226590461494 -566.0244406750164 -9433.240954297087 117 100 92
123.9102529920287 -9.786238991287068 -256.30599354575344 239 199 42
-34604.70497455194 -4563.471146037778 76514.90534598054 95 73 0
-15566.72170474944 -2193.342253551097 50044.67418692407 159 144 51
2052.75971543667 -291.8445143889903 -5105.222831698832 88 74 61
-578.9796290866046 23.506547668587825 1154.2822701799757 141 121 120
-14135.638645035278 -2731.995466209601 39564.448067762474 55 51 42
2211.2286092243985 -301.52474025922737 -4004.87486372804 192 181 177
3505.857065216201 -647.1506925245271 -9492.21974863312 77 54 0
8890.184244111997 1700.3122968551907 -19349.614425453794 60 52 31
-2920.2783088344486 -476.15481878808254 9926.368938418653 46 32 0
-43615.001066951256 5696.890663509463 164656.4165610027 81 60 41
135.8082601212277 26.049105443928166 -387.05142052962816 70 41 11
-11827.575538255773 833.1136830517129 23229.709991805943 218 193 41
6510.43606389207 1137.3027780049608 -16064.864278215482 108 102 52
1917.3753817243974 232.98080521661728 -5878.301995563857 64 27 0
-6590.72224484873 -860.1197994963027 23166.61009306424 209 180 26
23982.77190227194 3396.923670362367 -74517.4461747267 182 155 40
35580.97268391642 6683.627750425173 -97497.99680607663 177 171 157
-3650.9594298885995 -412.8315092034227 14873.301312522628 133 106 0
-35740.28500912194 -5784.285305810207 93003.84921220283 42 33 16
4065.558099089331 -288.89548118067023 -12622.963012183105 111 98 82
28843.799413489745 -5821.938993323077 -110563.31830566727 155 134 113
2963.4594503320945 -460.5845155227268 -6401.426379097704 159 150 141
-10298.561762315903 -459.5526250155564 24219.54327005677 66 56 3
38192.82948974448 -480.4231357553819 -78032.82638397215 216 186 14
-8629.88528983124 -1157.936505198976 29760.819396105715 77 49 12
5326.760515035386 -238.90017254063062 -15232.18666245707 206 184 39
6718.869837225416 -715.2629025461287 -15632.102011932706 217 207 76
15718.869202752592 -982.012436224425 -42253.735254565996 94 70 0
-16245.546632125372 -969.0003118289615 39466.84644170545 70 46 22
6138.771472055473 -884.6969509896247 -22193.96964071254 125 54 2
-12091.615463299706 -1329.1689582732372 34021.78128397291 40 32 11
11066.153099004243 2162.8101423603703 -29806.317756928936 44 36 23
1397.0422976859663 171.89843126054393 -5083.531457698439 117 108 93
-32446.035201417602 -3992.5127510139505 107418.9368989115 207 184 108
-7104.923273916941 -204.64247970332664 17174.985501232222 99 92 76
4029.929157699442 -57.067195698707245 -12841.458723167996 187 147 0
3420.0863531386804 -583.2429996212817 -12045.808537128147 119 93 6
43894.69201376895 -8497.534058214746 -166485.3389076989 84 65 61
4689.9370822346245 -962.4808351177231 -12334.327601613526 205 180 54
-45146.760298486224 -5771.512476975175 148316.60689996165 188 169 66
2567.5499454322066 -386.2104603495063 -5697.182570516782 147 137 125
3923.3785849598335 -658.4371840480483 -11724.715622685626 67 45 0
-21266.924056142372 -4148.640128945029 44664.75283897578 118 110 89
-10343.220283930272 -339.59166464705356 23351.70903613249 200 180 57
3961.989069607079 -672.1310066706877 -11922.669258096728 217 182 40
3673.499576221819 -652.9840601091809 -10450.372502581055 222 200 28
12626.041225317122 -2451.3375068943255 -19578.245005906345 175 171 172
3759.4024944524267 -694.0838286712635 -10327.689123055363 225 209 25
5177.184144349165 -804.2558494417061 -17217.93421569407 122 115 86
3030.1615673094957 -425.54859829861954 -8147.908177481051 90 71 29
-257.6839143895561 -49.90599769748446 548.2788013960696 106 104 29
4223.14607222789 -576.8760879304459 -10511.774719372112 107 59 55
3902.642101703384 -275.0514088431815 -10128.29999289411 170 93 87
-26868.58135713673 1814.676001209316 97646.4095946452 211 176 50
-5776.46377128008 338.49717574969895 20427.627009439922 205 177 44
5779.3837929133415 53.487662025977585 -18839.0528976851 155 122 0
-7470.384861138775 -1329.9070586861224 22659.596120088136 50 31 0
3279.6140568489695 -477.9162621856072 -8773.284487245635 68 46 22
3256.476897294322 -465.39231383366354 -8705.82365669826 248 227 198
6521.402625320266 118.06383187568565 -21413.211508747772 137 109 0
3660.683122709409 39.22639715045001 -11954.813591461623 207 179 36
-6401.518579277667 -706.6242996508705 22018.978588997645 200 182 44
-3328.488535063777 -494.24018444468675 13195.652679780818 88 80 69
-5349.359508380948 -655.4157605716449 19561.773531878272 211 178 23
3880.104041483602 -746.7945590620518 -10252.725401734495 129 101 2
3099.706870438341 -450.01444126034 -9116.597627188225 138 129 98
13036.66921400177 -2485.520217397914 -49158.586522736325 77 62 41
37.16471879381534 33.1929406041822 83.42167832127244 137 122 99
8028.730615588659 -1384.9224468904395 -16248.189152300878 154 146 133
7905.01837425236 -1345.5816061683001 -16051.38783013577 60 52 39
19175.933659291048 3412.5565604555563 -40630.16262706474 50 43 27
64815.530901959704 -11625.549495010959 -206432.02529199104 218 182 10
4931.946745255461 -821.4439377605185 -9805.67535744591 55 48 40
16380.264442188769 -1311.8604043029443 -42045.40280978784 120 81 66
19869.336456411856 3459.9392120070033 -41832.37141722664 45 38 22
-96904.43162317591 19657.385097061222 271535.12934357714 220 199 46
15420.188341264466 -2983.8320881983095 -44397.65766950169 222 184 23
20299.99414767044 3193.008852992093 -53912.21592755172 80 71 54
-16875.23561746859 -1078.235438381028 41907.37639703186 82 60 10
-307754.77220392175 60601.96849187657 978778.3183565945 219 180 25
5930.88898574113 273.03099796245965 -14167.491857221736 183 183 71
12632.74139614005 -59.574473312179755 -30048.592117475375 205 203 32
5577.639229328285 -905.5892609821722 -9540.214696277215 45 37 35
30561.432299063563 -289.6130623476432 -61792.127285625545 75 65 3
-37605.85198727502 -784.3350137194634 92461.12390390155 204 182 18
18228.017309596486 -364.1020738367845 -36759.698756199585 64 48 0
-23645.32506411169 -3255.070844908681 79397.01448127908 94 79 20
20393.571796600154 -1408.31032849101 -40394.70466219659 207 181 44
37342.438016022905 -149.84651928738057 -74629.37875888096 92 68 4
17484.102354787763 -2974.777410830193 -34057.158886248464 107 103 94
-11783.884602835911 172.75702305482537 23495.60470088606 63 37 0
-77563.54752702748 -5093.653370501197 194592.14810709414 172 160 22
18916.867703834298 -869.8577136105927 -59547.52298871132 194 174 79
-28286.58912182331 -610.4646741020657 69101.15198692305 91 72 0
12878.521919433007 -2269.2732516547812 -20233.651438520432 153 145 143
11146.582721340266 933.1506622827991 -21307.067977493545 107 100 81
133.67224531758043 -10.343483297705564 -290.86458952203674 213 184 67
7834.591812238558 -1284.7924061367803 -21805.891490652524 98 81 12
13349.423317055564 -1118.265564703478 -34530.168124934266 187 93 91
-20526.51587565465 -2579.4709119381355 67829.47978944187 72 55 0
10504.123322374711 -1580.781765213645 -24504.0793302715 190 173 143
13094.664913931452 -1090.5275826446705 -26940.554630009017 218 195 53
13552.184337508968 1992.850711793782 -37956.60138479673 44 37 21
-30812.41755664809 3878.049114331162 100463.8611167306 92 80 66
-27354.1441062908 4306.428612952413 99452.06056273083 85 36 4
2367.7032669403643 481.96545275888917 -6475.361614276848 100 97 88
-69994.8519887578 -9811.046945030264 224440.0672715395 174 145 75
-16969.399132438404 1709.3203301882572 65279.21548478773 175 160 77
9050.850613417304 1153.6541278301443 -27612.45624302039 69 61 15
8370.281413857096 888.0703877682929 -23644.920600248664 36 25 5
25463.923872841213 -1326.6708242531936 -81839.7502510068 66 55 37
10263.627991897843 1378.696843708088 -31864.596463202415 93 52 20
8240.593054910918 -1249.8068183139515 -21093.487803195294 108 57 26
11045.8312471318 1009.3751986723049 -21148.82237956517 135 128 110
-22675.332406415793 4467.760461698971 87108.99467045789 170 155 134
17149.520752655437 2668.6507367968775 -52141.69573774477 147 136 56
10731.122905952927 -1269.3325988755514 -24951.922647402767 121 99 58
23566.450888965213 -2190.7169312379924 -54776.66056662177 227 198 81
-22950.620778610435 4012.0635936902722 87276.16127511069 159 151 68
6246.124898677905 1153.652529965735 -23359.37156110147 163 152 134
10243.59618688223 -1280.2286809001419 -23572.283580233205 236 197 94
-6717.290177034261 -797.86614974455 27859.50235662659 70 54 39
-415829.53059247934 -62736.61011104654 1316061.0757083504 183 161 59
12533.41170141574 2338.394894958992 -34940.603974133526 99 95 83
-28964.667220817664 5193.245716753261 108320.31848923031 178 149 49
8234.964134374684 -1308.8676643222489 -21908.019740204618 80 61 46
61685.62040845636 -4446.3017609297285 -198623.84071045855 128 119 102
-16070.216594289443 -1984.3820687627738 53285.807883725145 190 163 116
2258172.1651106346 -131242.5400102341 -7092099.202046991 130 112 90
-7323.667141443432 703.4712061257264 27572.124543656668 172 145 30
-32361.687080536838 6511.3089049041655 124695.70375573916 86 71 50
-381.4236359450488 -64.45165269583497 1034.4784144949715 44 36 23
3880.412379611217 -658.7484187529518 -8871.611523561183 145 136 121
154378.60873455944 3355.987715936105 -273981.36651279 129 119 109
-26860.95975383565 4557.455688931185 96266.2725106891 187 153 27
17673.066917829092 -3636.443105373533 -48132.54821576646 229 209 34
-8050.343241626312 -477.7346398219358 33687.30215616196 169 138 48
4312.69313192455 -675.9649844969513 -7753.97965138095 148 138 129
-26860.95975383565 4557.455688931185 96266.2725106891 187 153 27
6729.317983585807 -1071.3900070038205 -11909.61752124531 154 144 135
25209.934387365032 -4570.737357528064 -74457.09734328618 75 59 34
8093.512428436061 1535.684935344362 -17479.369051228256 127 119 98
5025.892988641446 -251.78084954678272 -15122.028254485474 74 47 17
-19332.843563096798 -3474.281114238369 62328.02434798131 131 122 107
2663.266227778447 371.59473226257387 -8941.364761821556 170 157 61
6257.128315824038 -286.5686711540961 -18462.461982307574 213 179 11
84825.77573384994 10595.61100369609 -276398.6451536961 90 61 31
7908.744026205944 1356.434087572809 -25029.751470105122 52 45 29
-7226.556505868257 -1055.6563171681012 18160.000890741805 115 97 33
-25221.380598404812 -3072.6204882684556 87715.66027342404 74 73 16
-25683.344999597834 -3035.7287980212 88618.83322844605 185 160 15
46296.15725125015 -9522.628550679598 -127478.65692480071 242 214 17
-3538.943694584098 -540.0565233738298 12694.627146148967 67 50 0
17942.301789314457 -2076.39712199116 -41723.60699857586 82 73 32
-18326.666641792195 410.2351076190121 52942.72797093857 255 233 89
34124.3811499865 4851.114323001448 -109341.57396672155 73 43 0
-37566.462731067615 3264.7674760343866 93076.31407217086 132 105 76
-25683.344999597834 -3035.7287980212 88618.83322844605 185 160 15
-26024.148510049847 4155.496221081097 95892.15673078762 219 152 39
26668.466647366004 -2300.816717094552 -52264.06522872676 73 50 8
-7335.539494181427 -1099.4968540119523 18467.825601558812 40 25 0
11614.326881052248 -1875.648736467185 -30968.057924248933 248 227 198
-35119.60270781867 3149.939904580189 86995.002767478 142 52 43
-25759.96901632008 1911.0924334378794 68702.88705196774 121 105 72
56181.32786574659 -11518.69626047882 -177946.71487055506 255 228 136
37302.46512735951 -4067.806353828602 -74096.03263114448 122 98 2
-17804.70850891935 422.5295434192661 59289.63967476498 255 225 102
15078.740411401772 -2739.359093750533 -36114.856320257524 137 128 119
10788.195119542102 -890.1764133528945 -27919.87464688029 176 87 89
242.33760973224054 21.923328844161365 -805.7867282828473 207 181 24
-13538.439865333576 999.5735842600794 49202.82176224433 198 176 41
-729.9108311998112 17.52516089132998 2217.3337762960336 255 240 124
9047.158366623145 1164.6281182360478 -33272.62515743053 174 154 3
2995.401475552121 -58.339070508775805 -10008.401411103243 255 223 100
-48828.07248089509 812.1592450825532 113222.46041940023 218 201 27
20320.103945788233 2617.2165927393667 -70520.46048941957 194 177 25
22908.236262721384 4627.188087016178 -64258.05421736442 48 41 31
37002.189431465704 -1675.3429975326071 -121110.4816344285 83 60 18
